ply
format ascii 1.0
element vertex 557
property float x
property float y
property float z
property float nx
property float ny
property float nz
property uchar red
property uchar green
property uchar blue
property uchar alpha
property float quality
property float radius
element camera 0
property float view_px
property float view_py
property float view_pz
property float x_axisx
property float x_axisy
property float x_axisz
property float y_axisx
property float y_axisy
property float y_axisz
property float z_axisx
property float z_axisy
property float z_axisz
property float focal
property float scalex
property float scaley
property float centerx
property float centery
property int viewportx
property int viewporty
property float k1
property float k2
end_header
-1.5705 -1.177 2.06847 -0.962232 -0.114213 -0.247112 144 146 149 1 142.142 8.8211 
-1.56961 -0.947847 2.32813 -0.635407 0.347211 -0.689712 165 166 167 0 15.7861 13.2529 
-1.56906 -1.10741 2.10197 -0.976433 -0.0497861 -0.209998 144 146 149 1 111.158 12.2951 
-1.57172 -1.14129 2.03972 -0.976201 -0.102619 -0.191054 144 146 149 0 151 11.3262 
-1.57181 -1.14569 2.05425 -0.972429 -0.112336 -0.204358 144 146 149 1 140.953 10.3949 
-0.556149 -0.464688 1.83504 -0.918371 -0.0756914 -0.388415 188 188 189 0 19.7039 11.3816 
-1.56074 -0.635452 2.00061 -0.798325 0.0559135 -0.599625 189 189 190 1 41.7315 11.0738 
-1.56163 -0.620033 2.03574 -0.794279 0.152698 -0.588052 192 192 193 0 42.7346 12.6347 
-1.56144 -0.619599 2.02578 -0.810333 0.157714 -0.564346 192 192 193 1 44.8358 12.6347 
-1.56027 -0.583691 1.95852 -0.937641 0.0578933 -0.34275 129 130 130 0 34.7618 13.1238 
-1.56289 -0.835134 1.89425 -0.937425 0.0262654 -0.347196 150 151 150 1 92 11.368 
-1.55829 -0.567775 1.94652 -0.884427 -0.0809439 -0.459605 130 131 131 0 34.73 11.1802 
-1.558 -0.55681 1.90663 -0.886333 -0.0540717 -0.459881 131 132 131 1 43.9582 12.043 
-1.55759 -0.532843 1.84262 -0.919479 0.119634 -0.374495 131 132 131 0 49.9027 14.228 
-1.55639 -1.08062 1.76128 -0.957038 -0.113083 -0.267004 151 152 151 1 178 8.62618 
-1.55778 -1.07691 1.78331 -0.960684 -0.102968 -0.257843 144 145 147 0 199 11.0827 
-1.57204 -0.909411 2.46236 -0.847192 0.0271624 -0.530593 161 163 163 1 15.7267 15.5861 
-1.55663 -1.06459 1.76662 -0.956203 -0.0631329 -0.285816 144 145 147 0 204 9.52198 
-1.57172 -0.887247 2.42577 -0.905194 0.0505568 -0.42198 161 163 163 1 15.0716 16.6771 
-1.56051 -0.811344 2.20717 -0.853035 0.0885502 -0.514285 180 180 180 0 26.7624 12.0541 
-0.539562 -0.71095 1.63653 -0.94673 -0.116693 -0.300141 190 191 191 1 3.37645 11.5426 
-1.56351 -0.775973 2.26168 -0.736658 -0.04347 -0.674867 179 181 183 0 23.0762 12.591 
-1.55649 -0.678408 1.91993 -0.88107 0.0314011 -0.471942 195 194 193 1 25.3318 11.272 
-1.57309 -1.13645 2.06706 -0.967841 -0.141068 -0.208287 144 146 149 0 131.903 9.69293 
-1.55961 -0.650817 2.00568 -0.790811 0.0631233 -0.608796 191 192 193 1 38.8147 10.9099 
-0.559667 -0.43792 1.85569 -0.864265 -0.0210743 -0.502595 187 189 191 0 18.1225 11.0945 
-1.57068 -1.07086 2.01535 -0.972149 -0.0894142 -0.216639 144 146 149 1 156 11.9398 
-1.5741 -1.28831 2.15205 -0.958954 -0.098835 -0.265779 144 146 149 0 78.7635 10.8033 
-1.57438 -1.26372 2.08288 -0.97599 -0.123542 -0.179389 144 146 149 1 68.1525 12.2951 
-1.55515 -1.09816 1.73436 -0.939251 -0.100387 -0.328223 154 153 151 0 159 7.42896 
-1.57377 -1.26427 2.11184 -0.972479 -0.124453 -0.196968 144 146 149 1 86.9585 12.2951 
-1.55505 -1.09706 1.73333 -0.949109 -0.0867885 -0.302755 154 153 151 0 158 8.62612 
-1.55222 -1.07822 1.69546 -0.952049 -0.0628443 -0.299421 154 153 151 1 160 7.09268 
-1.55263 -1.0868 1.70646 -0.955358 -0.0998606 -0.278063 154 153 151 0 152 8.80885 
-1.55118 -1.06604 1.68361 -0.943949 -0.0485702 -0.326497 154 153 151 1 160 7.89988 
-1.55238 -1.07638 1.71783 -0.950654 -0.073023 -0.301537 153 154 153 0 163 7.56641 
-1.55144 -1.05932 1.68581 -0.945193 -0.0441517 -0.323514 153 154 153 1 165 7.79607 
-1.55175 -1.05888 1.68737 -0.942201 -0.0588172 -0.329844 153 154 153 0 163 7.17468 
-1.55704 -1.03563 2.18117 -0.774119 0.1989 -0.600982 172 167 169 1 13.6073 11.8941 
-1.55332 -1.071 1.72198 -0.942226 -0.086684 -0.323568 153 153 153 0 156 8.10096 
-1.55386 -1.06549 1.71565 -0.953276 -0.0987321 -0.285513 153 153 153 1 158 10.4956 
-1.56543 -0.905628 2.08329 -0.945956 0.177054 -0.271696 168 168 169 0 39.2057 13.3296 
-1.56551 -0.879446 2.13813 -0.953206 0.194675 -0.231299 172 172 172 1 42.5278 18.3654 
-1.55641 -0.853096 2.04039 -0.92297 0.0839085 -0.375614 210 212 212 0 42.3952 11.0297 
-1.55676 -1.06073 1.76797 -0.957347 -0.0642269 -0.281713 144 144 143 1 213 9.47182 
-1.57251 -0.889245 2.43774 -0.878695 0.018718 -0.477017 161 163 163 0 16.4226 16.6771 
-1.55883 -1.07183 1.79893 -0.960416 -0.0750791 -0.268262 144 146 149 1 232 9.56526 
-1.56894 -0.828727 2.30537 -0.93922 0.0378076 -0.341228 166 167 168 0 28.8966 15.0285 
-1.56422 -0.767652 2.26434 -0.73606 -0.0750064 -0.672748 179 181 183 1 21.7802 12.9887 
-1.56206 -1.08979 1.85751 -0.965104 -0.104025 -0.240317 144 146 149 0 266 10.4891 
-1.56291 -0.678235 2.04564 -0.916668 0.102465 -0.386292 187 188 189 1 35.4113 13.1504 
-1.57621 -1.30027 2.16054 -0.952139 -0.111251 -0.284702 144 146 149 0 64.925 11.9978 
-1.59344 -2.18747 4.40898 0.0100996 -0.643527 -0.765357 163 163 164 1 0.459337 68.6182 
-1.55168 -1.07205 1.67812 -0.944253 -0.0370451 -0.327129 154 153 151 0 160 7.72934 
-1.61842 -0.555074 2.04813 -0.177803 -0.743733 -0.644396 110 111 110 1 75 8.41442 
-1.60902 -0.548652 2.03823 -0.214183 -0.745297 -0.631394 107 108 108 0 78 7.94854 
-1.59845 -0.539313 2.02365 -0.184215 -0.735658 -0.651822 105 104 103 1 79 8.19613 
-1.57604 -1.28997 2.17079 -0.965128 -0.139494 -0.221518 144 146 149 0 87.3155 12.2951 
-1.59229 -1.75573 3.7886 -0.214911 -0.550013 -0.807031 160 163 162 1 0.839795 32.543 
-1.58038 -1.30645 2.2382 -0.95943 -0.143213 -0.242868 144 146 149 0 56.8504 12.2951 
-1.55125 -1.13226 1.7866 -0.964798 -0.148337 -0.217164 154 153 151 1 22 7.84646 
-1.56838 -1.04552 2.22831 -0.819605 0.235396 -0.522338 164 164 163 0 18.3238 11.8818 
-1.56753 -0.863647 2.19625 -0.943946 0.214488 -0.250918 172 172 171 1 34.9933 17.297 
-1.57182 -1.22473 2.0545 -0.971585 -0.125562 -0.20064 144 146 149 0 107 9.70014 
-1.57071 -1.2228 2.08661 -0.965563 -0.119497 -0.231105 144 146 149 1 91 10.1386 
-1.69922 -0.661179 2.19807 -0.258519 -0.749945 -0.608892 91 91 91 0 19 9.81334 
-1.57687 -1.30169 2.16707 -0.962254 -0.108654 -0.249522 144 146 149 1 68.1106 12.2951 
-1.58197 -1.26644 2.46283 -0.7704 -0.10329 -0.629138 156 160 159 0 3.59723 20.8766 
-1.55131 -1.0724 1.68328 -0.939957 -0.0435689 -0.338501 154 153 151 1 155 7.03013 
-1.55248 -1.13219 1.78722 -0.969984 -0.14469 -0.19544 154 153 151 0 22 7.1523 
-1.56782 -1.17056 1.99272 -0.973192 -0.0806189 -0.215401 144 146 149 1 178 10.0541 
-1.56536 -1.15742 1.95536 -0.973999 -0.0929863 -0.206588 144 146 149 0 172 8.97822 
-1.5615 -1.02376 2.22779 -0.769709 0.218876 -0.599702 156 159 161 1 18.3233 12.6277 
-1.57012 -1.17 2.04848 -0.979908 -0.0659304 -0.188235 144 146 149 0 157.752 12.2851 
-1.56333 -1.00805 2.24203 -0.76577 0.283967 -0.577026 169 168 168 1 15.6747 12.6277 
-1.57475 -1.03126 2.45172 -0.814266 0.0819446 -0.574679 162 163 166 0 12.8174 16.1544 
-1.57099 -0.985133 2.36066 -0.751629 0.221936 -0.621127 173 174 174 1 15.2593 14.6439 
-1.55529 -1.06332 1.74789 -0.9521 -0.0635683 -0.299108 149 150 149 0 198 8.29778 
-1.56649 -0.849635 2.21448 -0.940062 0.202316 -0.274502 172 172 174 1 32.7021 16.1311 
-1.55467 -1.10914 1.71147 -0.957694 -0.112948 -0.264699 155 156 154 0 125 11.2538 
-1.56075 -0.712088 1.96995 -0.925776 0.181501 -0.331658 191 192 193 1 36.6098 11.485 
-1.55823 -0.676485 2.00447 -0.855757 0.167348 -0.489565 205 203 202 0 34.2012 11.6941 
-1.56227 -0.600609 2.0402 -0.868106 0.0713352 -0.491227 191 192 191 1 46.8042 12.2961 
-1.55141 -1.1315 1.78714 -0.968877 -0.144711 -0.200839 154 153 151 0 22 7.88719 
-1.57522 -1.30677 2.14639 -0.970035 -0.0990029 -0.221881 144 146 149 1 46.3239 12.2951 
-1.55342 -1.0912 1.70965 -0.948913 -0.0625877 -0.309268 154 153 151 0 164 7.52702 
-1.57831 -1.32281 2.16917 -0.967734 -0.115767 -0.223804 144 146 149 1 39.0831 12.2951 
-1.60452 -0.59508 2.1094 -0.0503366 -0.75092 -0.658472 112 112 113 0 77 9.64956 
-1.55245 -1.1313 1.78782 -0.969732 -0.153934 -0.189537 154 153 151 1 22 7.02647 
-1.57544 -1.28748 2.16043 -0.968458 -0.14511 -0.202564 144 146 149 0 90.719 12.2951 
-1.55469 -1.08549 1.73988 -0.955866 -0.0560116 -0.288416 153 153 153 1 169 11.2538 
-1.56397 -1.14868 1.90995 -0.97415 -0.0938069 -0.205506 144 146 149 0 123 11.2538 
-1.57914 -1.20564 2.45322 -0.859318 0.0906538 -0.503343 162 162 164 1 6.95612 19.2632 
-1.57449 -1.29801 2.13931 -0.966359 -0.113594 -0.230751 144 146 149 0 54.4713 11.3525 
-1.57009 -1.17989 2.03281 -0.977549 -0.0886925 -0.191132 144 146 149 1 165.914 12.2951 
-1.55183 -1.0535 1.6925 -0.941726 -0.0356557 -0.334486 153 153 153 0 166 8.34792 
-1.57069 -1.16232 2.1015 -0.96883 -0.102223 -0.225654 144 146 149 1 133.381 11.2489 
-1.56024 -0.825934 2.18026 -0.892006 0.187734 -0.411195 178 181 181 0 25.758 15.0593 
-0.550009 -0.549937 1.7779 -0.852241 0.0638073 -0.519244 205 205 204 1 19.3752 11.1162 
-1.56629 -0.785244 2.27457 -0.810102 -0.00185203 -0.586286 174 174 173 0 22.6691 12.591 
-1.56252 -0.695209 2.02148 -0.900311 0.204805 -0.384052 188 188 190 1 34.9295 10.6415 
-0.557098 -0.44102 1.79254 -0.946894 0.0475358 -0.318012 205 205 204 0 18.95 11.9689 
-1.56415 -0.665773 2.05822 -0.905554 0.102806 -0.411586 182 182 184 1 27.2053 12.7398 
-1.55983 -0.535681 1.86509 -0.929631 0.0397605 -0.366341 132 132 132 0 36.9513 12.7866 
-1.55672 -0.514022 1.85613 -0.909259 0.0818625 -0.408102 130 129 130 1 42 12.5034 
-1.55319 -1.09468 1.70678 -0.9497 -0.0686436 -0.305546 153 153 152 0 157 7.60377 
-0.55484 -0.321678 1.70044 -0.888993 -0.0759194 -0.451584 176 176 177 1 12.2067 12.5701 
-1.57553 -1.27737 2.13943 -0.967117 -0.158972 -0.198528 144 146 149 0 86.3949 10.1548 
-1.55135 -1.1306 1.78771 -0.967609 -0.147039 -0.205212 154 153 151 1 22 8.42019 
-1.55579 -1.12935 1.67788 -0.95879 -0.14025 -0.247085 153 155 155 0 39 10.6969 
-1.5556 -1.12921 1.67757 -0.953755 -0.148667 -0.261245 153 155 155 1 39 7.9574 
-1.55539 -1.12911 1.67744 -0.952198 -0.158844 -0.260937 153 155 155 0 39 10.5513 
-1.56966 -1.16578 2.42107 -0.86864 0.127243 -0.478826 163 164 161 1 7.72846 17.1371 
-1.55587 -1.12904 1.6777 -0.954889 -0.145267 -0.259009 153 155 155 0 39 7.46669 
-1.59294 -0.707987 2.26625 -0.138772 -0.760389 -0.634469 83 83 82 1 39.4706 11.7908 
-1.55583 -1.12955 1.68005 -0.955662 -0.14885 -0.254074 153 155 155 0 36 7.87591 
-1.55561 -1.12943 1.67979 -0.955224 -0.144652 -0.258114 153 155 155 1 36 7.1702 
-0.559984 -0.337195 1.72996 -0.898358 -0.1012 -0.427447 224 224 224 0 8.87939 13.9203 
-1.65861 -0.557254 2.04063 -0.12044 -0.67491 -0.728005 108 106 107 1 30 7.59401 
-1.55741 -1.0364 2.20612 -0.764547 0.232155 -0.601309 161 160 159 0 11.8374 12.2333 
-1.62462 -0.511073 1.97907 -0.383911 -0.563516 -0.731479 96 96 96 1 18 8.10092 
-1.38508 -0.697551 1.69107 -0.680496 0.218139 -0.699528 198 198 200 0 19 8.60307 
-1.55044 -1.13967 1.76801 -0.964628 -0.15184 -0.215494 155 156 154 1 20 6.13503 
-1.54812 -1.1388 1.76848 -0.961297 -0.180623 -0.208048 155 156 154 0 20 6.21219 
-1.57361 -1.04709 2.44707 -0.862355 0.114979 -0.493075 166 169 168 1 11.0686 17.0563 
-1.55131 -1.0852 1.674 -0.938969 -0.0540865 -0.339722 155 156 154 0 139 6.2768 
-1.58235 -0.516895 1.98856 -0.143406 -0.746918 -0.649268 96 96 97 1 65 8.45067 
-1.59622 -1.20878 2.13069 -0.933539 -0.284782 -0.217726 144 146 149 0 114 11.1566 
-1.57362 -0.956852 2.47932 -0.763328 0.071678 -0.642022 165 164 163 1 9.91492 15.2151 
-0.553058 -0.497482 1.8173 -0.872839 0.0252281 -0.487356 186 186 189 0 15.6504 11.4983 
-0.557844 -0.428859 1.8503 -0.899052 -0.0415619 -0.435865 187 189 191 1 16.5084 12.4483 
-1.55729 -0.503726 1.86316 -0.885379 0.0800884 -0.457918 126 126 127 0 37 11.9627 
-1.55595 -1.13938 1.74062 -0.959099 -0.150775 -0.239573 154 154 152 1 20 11.2538 
-1.55362 -1.09289 1.71548 -0.948566 -0.0680725 -0.309175 154 153 151 0 161 8.71563 
-1.55534 -1.10759 1.72563 -0.942798 -0.119795 -0.311098 153 153 152 1 141 10.9766 
-1.64302 -0.579419 2.08015 -0.0732843 -0.725061 -0.684774 108 108 107 0 58 8.06857 
-1.55256 -1.13051 1.78835 -0.971813 -0.146429 -0.184764 154 153 151 1 22 8.12373 
-1.55259 -1.08255 1.71245 -0.955637 -0.055035 -0.289359 154 153 151 0 164 8.64368 
-1.66262 -0.592365 2.08971 -0.140296 -0.738837 -0.659118 179 167 158 1 44 7.94041 
-1.67886 -0.604427 2.10884 -0.0801761 -0.760935 -0.643855 94 91 87 0 40 8.66091 
-1.58361 -1.27626 2.47694 -0.791299 0.0432356 -0.609898 156 160 159 1 2.20088 22.8881 
-1.55472 -1.09077 1.73622 -0.951537 -0.0493651 -0.303545 153 154 153 0 164 9.15297 
-1.60204 -0.559514 2.05601 -0.150349 -0.782982 -0.603601 112 112 111 1 69 8.48277 
-1.55945 -1.12989 1.8462 -0.968087 -0.0498147 -0.245613 149 150 149 0 100 9.01433 
-1.57188 -1.20653 2.42695 -0.881445 0.106432 -0.460138 164 164 162 1 6.24939 20.9639 
-1.55388 -1.07876 1.73707 -0.956752 -0.0761165 -0.28077 153 153 153 0 168 8.85061 
-1.58099 -1.17103 2.45047 -0.792462 0.131189 -0.595645 163 162 158 1 6.11788 17.1371 
-1.57069 -1.19556 2.02054 -0.974042 -0.123152 -0.189935 144 146 149 0 150.825 10.3253 
-1.58514 -0.576001 2.07733 -0.137084 -0.783237 -0.606422 114 114 114 1 56 8.89296 
-1.57092 -1.17483 2.04745 -0.978103 -0.0907478 -0.187294 144 146 149 0 159.762 12.0163 
-1.56462 -1.15906 1.95802 -0.972124 -0.0933961 -0.215064 144 146 149 1 166 9.56586 
-1.57075 -1.17978 2.06322 -0.965948 -0.126082 -0.225937 144 146 149 0 143.757 9.50268 
-1.5702 -1.17591 2.01813 -0.970034 -0.141691 -0.197377 144 146 149 1 160 10.0831 
-1.5569 -1.08161 1.77217 -0.962077 -0.103331 -0.252448 149 150 149 0 175 10.9991 
-1.57236 -1.16504 2.0463 -0.973153 -0.135809 -0.185822 144 146 149 1 146 10.4731 
-1.56857 -0.843318 2.27324 -0.941859 0.182555 -0.28209 166 167 168 0 27.9217 16.5848 
-1.56369 -0.794376 2.24806 -0.838023 0.100484 -0.536302 174 174 173 1 23.5533 14.023 
-1.56058 -0.63466 1.9859 -0.848374 0.038866 -0.527968 189 189 190 0 37.2483 11.0738 
-1.55795 -0.599173 1.88647 -0.893508 0.12265 -0.431972 133 133 132 1 35.8171 13.2347 
-1.56241 -0.600634 2.04137 -0.872184 0.0408714 -0.487467 191 192 191 0 43.6535 12.2961 
-1.55896 -0.54308 1.86566 -0.924935 0.0108151 -0.379972 132 132 132 1 42.9342 14.217 
-1.55255 -1.12963 1.78893 -0.969872 -0.154806 -0.188104 154 153 151 0 22 6.77065 
-1.60773 -1.15021 2.12608 -0.874371 -0.378091 -0.304174 144 146 149 1 126 9.50118 
-1.55158 -1.12881 1.78881 -0.965185 -0.15985 -0.20704 154 153 151 0 22 7.51432 
-1.64473 -0.622613 2.14442 -0.0978564 -0.764302 -0.637391 169 169 169 1 69 9.08895 
-1.07246 -0.832017 1.60957 -0.716861 0.0329371 -0.696438 181 183 181 0 9.04434 9.8772 
-0.55966 -0.356666 1.75306 -0.944436 -0.0793057 -0.318985 216 215 212 1 9.76476 13.2244 
-1.55258 -1.07758 1.7179 -0.945806 -0.0689073 -0.317337 153 154 153 0 159 7.74624 
-1.57378 -1.18785 2.08736 -0.977638 -0.100981 -0.184465 144 146 149 1 144.376 12.2217 
-1.57104 -1.18746 2.06324 -0.964811 -0.12325 -0.232267 144 146 149 0 140.824 9.50268 
-1.55314 -1.0562 1.71017 -0.950055 -0.0613802 -0.305987 154 154 153 1 167 8.17776 
-1.56287 -0.886753 2.0887 -0.951477 0.196703 -0.236643 172 173 171 0 41.6833 17.9403 
-1.55965 -0.834806 2.1376 -0.891374 0.128265 -0.434743 179 181 181 1 25.2806 11.7355 
-1.55842 -1.07476 1.78818 -0.960803 -0.0937871 -0.260886 144 144 143 0 203 9.8659 
-1.56532 -0.726692 2.02254 -0.957684 0.128528 -0.257529 190 190 190 1 30.3143 15.5121 
-1.56028 -0.645339 2.01895 -0.797845 0.0662859 -0.599207 200 200 200 0 35.2913 9.93311 
-1.55137 -1.08385 1.68096 -0.942918 -0.0342683 -0.331257 153 153 152 1 143 7.19983 
-1.65991 -0.637652 2.16763 -0.0564596 -0.748541 -0.660681 94 94 94 0 71 8.86778 
-1.18682 -0.832063 1.5812 -0.864358 0.0492606 -0.500459 186 186 188 1 8 8.52078 
-1.55277 -1.06531 1.69399 -0.947161 -0.0904938 -0.307728 153 154 153 0 159 7.48313 
-1.55283 -1.08254 1.71087 -0.948291 -0.107418 -0.298673 154 153 151 1 147 9.53758 
-1.66379 -0.657351 2.19571 -0.177546 -0.782799 -0.596409 95 95 95 0 66 9.71132 
-1.55287 -1.07969 1.71498 -0.94091 -0.125993 -0.314346 153 154 153 1 150 9.29314 
-1.63914 -0.656186 2.19455 -0.0722069 -0.739115 -0.669698 133 133 133 0 68.9711 9.42951 
-1.55381 -1.0649 1.71788 -0.942096 -0.0945334 -0.321742 153 153 153 1 162 8.10096 
-0.538016 -0.673399 1.66632 -0.926856 -0.0159126 -0.375079 195 193 193 0 19.8472 11.3057 
-0.54037 -0.640857 1.69699 -0.92096 0.00234181 -0.38965 175 175 177 1 19.3352 11.0704 
-0.552106 -0.355841 1.68996 -0.923727 -0.0615912 -0.378068 214 211 214 0 14.3233 12.4372 
-1.57011 -1.18377 2.0184 -0.969539 -0.151289 -0.192626 144 146 149 1 157 10.0831 
-1.55897 -0.8397 2.13007 -0.869394 0.158205 -0.468109 179 181 181 0 32.1868 11.7355 
-1.67413 -0.688772 2.24093 -0.305627 -0.709363 -0.635136 90 90 90 1 4.9682 10.2074 
-1.55764 -0.555498 1.8394 -0.938677 0.0225586 -0.34406 133 134 134 0 44 12.6453 
-1.55023 -1.13885 1.76846 -0.965287 -0.15704 -0.208708 155 156 154 1 20 6.14393 
-0.560843 -0.359548 1.77556 -0.961326 -0.109778 -0.252589 212 212 212 0 3.37753 18.2239 
-1.55286 -1.11149 1.68238 -0.948987 -0.106037 -0.296951 151 151 151 1 88 7.71795 
-1.55276 -1.08637 1.70347 -0.956582 -0.0823663 -0.279584 154 153 151 0 158 8.49464 
-0.560118 -0.386019 1.81411 -0.912709 -0.0603467 -0.404129 199 199 200 1 4.3068 19.7648 
-1.55154 -1.07557 1.68269 -0.943574 -0.0436394 -0.328273 154 153 151 0 155 6.56635 
-1.55258 -1.12873 1.78955 -0.9705 -0.156005 -0.183824 154 153 151 1 22 6.97726 
-0.552842 -0.399666 1.69375 -0.92408 -0.103201 -0.368003 215 216 216 0 14.3164 11.3194 
-1.61823 -0.744946 2.31391 -0.12333 -0.703416 -0.699996 93 93 94 1 4.24367 11.9039 
-1.06138 -0.636915 1.74549 -0.855962 -0.105978 -0.50606 192 192 189 0 9.16067 10.4915 
-1.56206 -1.13618 1.88777 -0.970537 -0.0911604 -0.223043 144 146 149 1 127 11.2538 
-1.56383 -1.18346 1.95631 -0.967388 -0.102118 -0.231804 144 146 149 0 69 8.14335 
-1.6378 -1.45933 3.34416 -0.0652053 -0.720132 -0.690766 165 165 167 1 1.18943 45.2933 
-0.558618 -0.412035 1.85395 -0.872985 -0.143028 -0.466305 201 202 201 0 3.06844 11.6701 
-1.55209 -1.06174 1.69112 -0.946353 -0.0573613 -0.318004 153 154 153 1 160 6.972 
-1.57116 -1.23168 2.08911 -0.967081 -0.121147 -0.223781 144 146 149 0 90 10.2481 
-1.57577 -1.12115 2.4423 -0.869596 0.0440397 -0.491797 161 161 156 1 7.85205 19.5467 
-1.55787 -1.07199 1.78296 -0.963717 -0.0934396 -0.250036 144 145 147 0 195 11.2538 
-1.55329 -1.08356 1.72544 -0.946495 -0.105404 -0.305019 153 154 153 1 148 9.15188 
-1.5759 -1.08133 2.44276 -0.827392 0.126966 -0.547085 162 161 165 0 9.27902 17.762 
-1.5561 -1.07905 1.75395 -0.959229 -0.100243 -0.264255 151 152 151 1 174 9.98763 
-1.57051 -0.92581 2.39459 -0.660181 0.293266 -0.691488 165 163 165 0 13.7683 14.7553 
-1.56122 -0.811559 2.21167 -0.866053 0.045262 -0.497899 180 180 180 1 25.1131 12.0541 
-0.555917 -0.448448 1.84213 -0.934355 -0.0360831 -0.354511 190 189 190 0 14.5202 11.5645 
-0.557927 -0.370001 1.76109 -0.938857 -0.062041 -0.338671 214 215 216 1 16.6404 12.567 
-1.56035 -0.614866 1.92596 -0.940663 0.0800467 -0.329766 200 204 204 0 30.6639 12.1281 
-1.55915 -0.545686 1.88137 -0.912928 -0.0389143 -0.406262 132 132 132 1 32.9198 10.2149 
-1.55366 -1.14586 1.79664 -0.97008 -0.180375 -0.162513 153 153 152 0 19 9.25427 
-0.549787 -0.414667 1.67377 -0.91546 -0.0969825 -0.390547 215 216 216 1 14.7081 11.2542 
-1.55272 -1.14464 1.7953 -0.972839 -0.174114 -0.152543 153 153 152 0 19 10.3232 
-1.55812 -1.06895 1.78478 -0.963571 -0.0877557 -0.252645 144 144 143 1 203 11.2538 
-1.576 -0.834667 2.37581 -0.926484 0.0221192 -0.375684 157 158 161 0 15.0916 19.1677 
-1.64798 -0.982741 2.65435 -0.147366 -0.659389 -0.737218 118 114 114 1 3.54945 23.6321 
-0.533434 -0.847626 1.57516 -0.95109 0.102854 -0.291289 177 177 178 0 13.7155 11.061 
-1.55263 -1.144 1.79566 -0.973355 -0.170081 -0.153794 153 153 152 1 19 9.63389 
-1.55489 -1.09743 1.71929 -0.952559 -0.0765711 -0.294565 154 153 151 0 158 8.95806 
-1.54802 -1.13839 1.76872 -0.960439 -0.194926 -0.198898 155 156 154 1 20 6.21219 
-1.5749 -1.27946 2.10979 -0.973364 -0.151952 -0.171676 144 146 149 0 61.9867 10.9626 
-1.57506 -1.25023 2.43863 -0.808101 -0.0965365 -0.581079 156 160 159 1 3.33265 20.1199 
-1.55412 -1.0908 1.7263 -0.954623 -0.0686465 -0.289798 153 154 153 0 161 8.89636 
-1.60007 -0.498798 1.96252 -0.42348 -0.530754 -0.734142 93 92 92 1 22 7.98865 
-1.58161 -0.505869 1.97196 -0.211245 -0.702114 -0.680008 93 93 93 0 58 7.85147 
-1.55491 -1.07303 1.74049 -0.958854 -0.0786476 -0.272787 150 150 151 1 173 9.63882 
-1.64086 -0.546761 2.02561 -0.198756 -0.730553 -0.653291 108 107 107 0 27 8.1531 
-1.55192 -1.10309 1.7304 -0.895738 0.114377 -0.429617 154 153 151 1 5 6.68829 
-1.58878 -1.66585 3.66226 -0.124634 -0.637606 -0.760214 160 164 165 0 0.928992 34.1174 
-1.58196 -1.32295 2.25532 -0.963749 -0.147835 -0.22211 144 146 149 1 47.3395 12.2951 
-1.57493 -1.27458 2.1308 -0.966665 -0.157542 -0.201841 144 146 149 0 83.6441 11.6546 
-1.55222 -1.10018 1.73206 -0.919965 -0.021359 -0.391419 154 153 151 1 5 5.26896 
-1.67459 -0.571527 2.05306 -0.248274 -0.674752 -0.695033 103 104 103 0 20 7.59924 
-1.6455 -0.985177 2.6584 -0.203294 -0.640298 -0.740736 118 114 114 1 3.94043 21.1478 
-1.62726 -1.43736 3.31465 -0.036113 -0.699255 -0.71396 168 163 162 0 1.2213 41.7182 
-1.5621 -0.59135 2.01303 -0.935212 0.0240673 -0.35327 207 200 192 1 29.477 11.0048 
-0.537098 -0.680716 1.64665 -0.91752 -0.00581452 -0.397646 194 193 193 0 18.9963 10.95 
-1.57276 -1.16074 2.06266 -0.974884 -0.130449 -0.180512 144 146 149 1 129 12.2951 
-1.55703 -1.07719 1.77115 -0.963664 -0.0988838 -0.248141 149 150 149 0 182 9.74952 
-1.55857 -1.07469 1.79197 -0.958642 -0.115188 -0.260264 144 144 143 1 199 8.37419 
-0.555937 -0.375695 1.72716 -0.919904 -0.0430361 -0.389775 216 215 215 0 16.7706 11.8809 
-1.57164 -1.09788 2.04685 -0.971032 -0.114945 -0.209485 144 146 149 1 134 11.0063 
-0.534167 -0.860285 1.56912 -0.889754 0.0862603 -0.448216 177 177 178 0 6.93527 9.50207 
-1.55508 -1.10769 1.71137 -0.956977 -0.0965222 -0.273641 155 156 154 1 133 11.118 
-0.530703 -0.832851 1.58049 -0.944293 0.00198117 -0.329099 179 179 181 0 16.5394 10.105 
-1.66957 -0.999746 2.67678 -0.0966516 -0.727069 -0.679727 112 111 110 1 1.91978 27.6851 
-1.55046 -1.13821 1.76893 -0.962296 -0.156536 -0.222448 155 156 154 0 20 6.63493 
-1.59751 -1.1672 2.12885 -0.896139 -0.350011 -0.272812 144 146 149 1 111 8.10326 
-1.55485 -1.09485 1.73221 -0.953275 -0.0701489 -0.293847 154 153 151 0 157 9.79492 
-1.60135 -1.16476 2.12207 -0.894117 -0.344789 -0.285788 144 146 149 1 122 8.54483 
-1.63785 -1.01711 2.70129 -0.0508361 -0.721245 -0.690812 118 118 118 0 3.7543 26.3344 
-1.54912 -1.1377 1.76885 -0.956627 -0.18668 -0.223643 155 156 154 1 20 6.86958 
-1.57734 -1.00912 2.62761 -0.858922 -0.223478 -0.460771 167 169 169 0 2.81406 19.1444 
-1.62998 -1.09127 2.81464 -0.100941 -0.689797 -0.716932 165 165 167 1 1.96125 30.6464 
-1.6561 -1.07187 2.78447 -0.105569 -0.748835 -0.654295 126 126 130 0 1.70225 33.9956 
-0.540483 -0.589809 1.64041 -0.959889 -0.161963 -0.228871 209 209 210 1 15.5688 11.2489 
-1.56796 -1.1763 1.99283 -0.97407 -0.0974696 -0.204174 144 146 149 0 162 10.0541 
-1.55542 -1.11116 1.76343 -0.935601 0.0932486 -0.340524 153 154 153 1 6 7.16127 
-1.55964 -0.975478 2.26869 -0.746196 0.223013 -0.627262 168 168 168 0 8.75427 12.0563 
-0.535362 -0.653066 1.614 -0.932328 -0.0347508 -0.359941 202 202 203 1 16.2147 10.9438 
-1.56855 -1.10409 2.42147 -0.858932 0.0431922 -0.510264 165 165 164 0 4.57964 21.5181 
-1.5748 -1.38737 3.24927 -0.0449183 -0.582656 -0.811477 163 162 158 1 1.29554 33.7975 
-1.55203 -1.07026 1.69471 -0.950177 -0.0626915 -0.305342 153 154 153 0 153 7.51815 
-1.59475 -1.1949 2.12559 -0.917283 -0.301525 -0.260142 144 146 149 1 114 8.42313 
-1.55338 -1.08349 1.72516 -0.946737 -0.109732 -0.302734 153 154 153 0 148 9.15188 
-1.57405 -1.19524 2.089 -0.97927 -0.106304 -0.172424 144 146 149 1 140.324 12.2951 
-1.59709 -1.41393 3.28321 -0.127358 -0.645881 -0.75274 165 164 169 0 1.05679 35.8631 
-1.57476 -1.14024 2.43378 -0.85252 0.00098768 -0.522694 161 162 161 1 5.01094 22.2652 
-1.57833 -1.02649 2.46076 -0.821634 0.0186703 -0.56971 162 163 166 0 8.27341 17.4721 
-1.57585 -1.00289 2.47497 -0.748168 0.0639662 -0.660419 169 171 172 1 8.56116 15.976 
-1.66289 -1.02553 2.71286 -0.10413 -0.658493 -0.745348 119 118 115 0 2.19633 24.0505 
-1.60033 -1.13501 2.11934 -0.858681 -0.38654 -0.336531 144 146 149 1 120 8.2693 
-1.55593 -1.0672 1.75278 -0.961872 -0.0763226 -0.262636 149 150 149 0 190 10.2855 
-1.57165 -1.23125 2.05533 -0.971204 -0.132789 -0.197814 144 146 149 1 96 7.78017 
-1.57165 -1.23198 2.05483 -0.972635 -0.132107 -0.191127 144 146 149 0 96 8.30917 
-1.5706 -1.22195 2.04849 -0.970544 -0.141512 -0.194986 144 146 149 1 106 5.76313 
-1.55045 -1.13744 1.76934 -0.965963 -0.157645 -0.205093 155 156 154 0 20 6.03579 
-1.57086 -1.22815 2.04981 -0.972766 -0.131771 -0.190688 144 146 149 1 97 5.76313 
-1.55192 -1.0713 1.69068 -0.95002 -0.0730331 -0.303525 154 153 151 0 154 7.79607 
-1.56424 -0.640031 2.05642 -0.842971 0.0459212 -0.535995 199 200 200 1 28.0661 9.09975 
-1.54953 -1.13694 1.76909 -0.967338 -0.181262 -0.177205 155 156 154 0 20 6.01689 
-1.01865 -0.777757 1.63546 -0.787353 0.114455 -0.605785 178 179 179 1 12.0735 10.4957 
-1.5956 -0.719172 2.27572 -0.142265 -0.748562 -0.647623 86 86 86 0 34.3408 12.3259 
-1.55883 -1.15815 1.9334 -0.9486 -0.0674747 -0.309201 144 146 149 1 71 6.05636 
-1.59055 -0.651333 2.1875 -0.0389988 -0.768934 -0.638138 169 170 171 0 53.6555 10.933 
-1.55528 -1.10586 1.76702 -0.931498 0.109575 -0.34685 153 154 153 1 6 8.50336 
-1.58834 -0.612879 2.13173 -0.0504158 -0.76979 -0.636303 111 111 112 0 53 10.1531 
-1.33497 -0.81816 1.5822 -0.761302 0.14557 -0.631845 189 189 189 1 21 7.98106 
-1.04706 -0.759606 1.6512 -0.815698 0.0689196 -0.574357 184 184 184 0 14.6584 10.3184 
-1.60659 -0.592931 2.10671 -0.0352326 -0.745646 -0.66541 112 112 113 1 68 9.45198 
-1.56727 -1.17251 1.96365 -0.977323 -0.0913815 -0.19102 144 146 149 0 141 11.2538 
-1.54481 -1.10265 1.74812 -0.951956 -0.109962 -0.285812 154 153 151 1 19 5.11831 
-1.35531 -0.81463 1.59083 -0.65606 0.179826 -0.732972 189 189 189 0 29 7.28261 
-1.20414 -0.779181 1.62226 -0.716917 -0.0259449 -0.696676 219 219 221 1 7.94127 9.30784 
-1.55049 -1.13673 1.76981 -0.968212 -0.140016 -0.207272 155 156 154 0 20 6.51563 
-1.02092 -0.690507 1.68742 -0.850604 0.0848921 -0.518908 187 187 187 1 12.4017 12.1913 
-1.57573 -1.29437 2.1484 -0.972363 -0.117578 -0.201705 144 146 149 0 62.7657 11.0059 
-1.35719 -0.762981 1.62478 -0.636001 0.260611 -0.72635 193 193 194 1 25 8.957 
-1.55797 -0.993552 2.23891 -0.833744 0.289106 -0.470414 169 167 168 0 10.3764 16.9405 
-1.36146 -0.751209 1.63239 -0.629761 0.217311 -0.745773 195 195 195 1 23 7.9615 
-1.55857 -1.16667 1.88868 -0.964271 -0.0633501 -0.25723 151 152 151 0 39 8.34105 
-1.63366 -0.598156 2.10909 -0.0228645 -0.767053 -0.641176 170 169 160 1 68 8.93261 
-1.65167 -0.552496 2.03497 -0.101565 -0.746708 -0.657352 106 106 106 0 36 8.05369 
-1.5743 -1.29066 2.12225 -0.969063 -0.137146 -0.205204 144 146 149 1 52.2545 10.8033 
-1.55897 -1.15227 1.98585 -0.931068 -0.0474235 -0.36175 144 146 149 0 112 6.60493 
-0.530408 -0.839435 1.55431 -0.969552 0.039687 -0.241649 183 184 185 1 12.518 10.3682 
-1.56797 -0.882285 2.15327 -0.955862 0.186146 -0.227329 174 174 174 0 25.9265 18.7791 
-1.5821 -0.940066 2.54871 -0.813762 -0.164765 -0.557355 163 163 163 1 8.92107 19.183 
-1.66011 -0.603326 2.11332 -0.20105 -0.742205 -0.639305 162 160 162 0 60 7.91138 
-1.58371 -0.537285 2.01974 -0.0669099 -0.752258 -0.655462 106 106 105 1 59 8.7978 
-1.55384 -1.10588 1.69768 -0.943292 -0.0926123 -0.318784 155 156 154 0 126 7.96538 
-1.33464 -0.720599 1.65761 -0.624591 0.119282 -0.771788 197 194 196 1 28.9454 8.60064 
-1.62718 -0.53313 2.00598 -0.26672 -0.714262 -0.647063 105 105 105 0 40 8.35641 
-1.55466 -1.10698 1.70917 -0.951043 -0.0895688 -0.295795 155 156 154 1 136 8.66915 
-1.55423 -1.10315 1.70791 -0.947751 -0.0847627 -0.307545 155 156 154 0 143 7.77432 
-1.55338 -1.09779 1.69574 -0.942667 -0.0909081 -0.321114 155 156 154 1 143 7.66304 
-0.533692 -0.865846 1.56635 -0.929724 0.0869782 -0.357839 185 184 183 0 4.65873 11.1527 
-0.53131 -0.849023 1.53673 -0.899161 0.0445087 -0.43535 185 184 184 1 4.87865 10.6301 
-0.528474 -0.82344 1.54663 -0.952609 0.0345319 -0.30223 187 186 186 0 14.9684 10.3682 
-1.60249 -0.513163 1.97995 -0.248794 -0.620239 -0.743912 95 95 95 1 31 7.70439 
-1.59432 -0.67274 2.2282 -0.0300922 -0.761936 -0.646953 159 158 158 0 40.9902 10.8159 
-1.31872 -0.704173 1.67006 -0.656186 0.0676407 -0.751561 201 200 199 1 17.9172 9.00278 
-1.55378 -1.08954 1.72354 -0.962249 -0.0737192 -0.261997 153 154 153 0 158 10.4336 
-1.55182 -1.07749 1.68641 -0.950258 -0.0600024 -0.305628 154 153 151 1 152 7.74013 
-1.31419 -0.691032 1.68085 -0.751119 0.123375 -0.648536 195 195 195 0 19.9494 8.61298 
-1.55337 -1.08713 1.71984 -0.961649 -0.0707716 -0.264996 153 154 153 1 157 8.62176 
-1.56171 -1.18054 2.38332 -0.798449 0.249924 -0.547738 166 165 165 0 2.63847 18.2717 
-1.5872 -0.601348 2.12784 -0.0348619 -0.744581 -0.666621 114 113 114 1 43 9.80045 
-1.55447 -1.08724 1.73626 -0.958961 -0.0738759 -0.273745 153 154 153 0 159 9.7807 
-1.5852 -1.3565 2.26625 -0.956977 -0.217028 -0.192597 144 146 149 1 41.0478 12.2951 
-1.58076 -0.545327 2.03988 -0.164406 -0.753894 -0.636093 108 108 111 0 37 8.57981 
-1.60136 -1.39615 3.26018 -0.168896 -0.632509 -0.755915 138 137 146 1 1.08491 35.7268 
-1.55294 -1.08389 1.7226 -0.950723 -0.0951159 -0.295091 153 154 153 0 150 9.32147 
-1.61019 -0.56355 2.07091 -0.11973 -0.767001 -0.630377 110 111 110 1 47 7.96653 
-1.58248 -1.32985 3.16931 -0.147822 -0.525041 -0.838141 163 167 161 0 1.1597 32.466 
-1.55762 -0.505642 1.86877 -0.961284 0.0248707 -0.274434 130 129 130 1 19 18.6557 
-1.54951 -1.01704 2.19661 -0.817783 0.0291299 -0.574789 168 167 167 0 6.23334 15.3885 
-1.56941 -1.18303 2.03137 -0.977766 -0.0968773 -0.18598 144 146 149 1 160 10.4106 
-1.65262 -0.581371 2.0872 -0.20874 -0.658538 -0.723019 106 105 104 0 23 8.43544 
-1.5916 -1.2811 3.10627 -0.0954632 -0.762381 -0.640048 166 165 163 1 1.22808 43.6741 
-1.57741 -1.24413 3.04617 -0.108748 -0.667078 -0.737008 165 163 162 0 1.29976 34.1808 
-1.64616 -0.575301 2.08049 -0.20951 -0.66082 -0.720709 108 108 107 1 23 8.2377 
-1.6122 -1.19031 2.96673 -0.154944 -0.699597 -0.697536 167 167 165 0 1.40394 29.8848 
-1.58952 -1.17645 2.94465 -0.172675 -0.682687 -0.710016 165 164 164 1 3.17435 29.0614 
-1.6112 -0.538642 2.03276 -0.508 -0.507584 -0.695913 106 106 106 0 31 7.94854 
-1.55963 -1.16664 1.89966 -0.965781 -0.0857952 -0.244756 151 152 151 1 42 8.67991 
-1.59365 -0.722106 2.28943 -0.184939 -0.787859 -0.587432 87 88 89 0 12.4274 11.3835 
-1.61986 -1.14515 2.89821 -0.00808322 -0.807392 -0.58996 163 164 165 1 1.50264 38.0307 
-1.59559 -1.14191 2.89074 -0.128144 -0.702445 -0.700107 168 166 163 0 3.96975 27.1453 
-1.56819 -1.15181 2.90626 -0.281117 -0.529738 -0.800219 168 168 168 1 1.48263 24.8124 
-0.539823 -0.606498 1.61671 -0.95851 -0.0977804 -0.267764 204 206 207 0 15.408 11.0951 
-1.60231 -0.697317 2.26453 -0.204477 -0.761815 -0.614676 159 161 160 1 41.9549 10.7164 
-1.62132 -1.13703 2.88545 -0.00564904 -0.823073 -0.567907 163 164 165 0 1.52231 44.0087 
-1.5975 -1.13266 2.87512 -0.102493 -0.712724 -0.693916 168 166 163 1 3.71558 27.1453 
-1.57362 -1.10387 2.83763 -0.108262 -0.578385 -0.808548 164 164 164 0 3.20839 21.1118 
-1.57582 -1.01496 2.46959 -0.80963 0.0647918 -0.583354 173 172 173 1 6.26211 17.3112 
-1.55335 -1.11587 1.68285 -0.951422 -0.118086 -0.284345 153 154 155 0 80 8.95484 
-1.59489 -1.08057 2.79371 -0.0824668 -0.698165 -0.711171 172 172 169 1 5.75113 30.3124 
-1.58645 -0.605994 2.1341 -0.0707934 -0.76031 -0.645691 111 111 112 0 39 10.2576 
-1.63776 -1.05427 2.75449 -0.0200673 -0.659292 -0.751619 165 165 168 1 1.74875 19.8164 
-1.55347 -1.05879 1.71362 -0.953575 -0.078361 -0.290782 151 151 152 0 161 8.29778 
-1.64677 -1.01812 2.70426 0.0155994 -0.728667 -0.684691 133 142 150 1 1.85156 27.8958 
-1.56575 -0.937237 2.36297 -0.66723 0.264296 -0.696385 167 166 167 0 8.46166 11.6297 
-0.545589 -0.55341 1.71292 -0.943946 -0.173433 -0.280869 203 204 203 1 13.444 11.7247 
-1.58472 -0.591536 2.11246 -0.0780355 -0.789087 -0.609304 113 112 113 0 37 9.85776 
-1.56578 -0.915754 2.42563 -0.834901 0.182553 -0.519245 164 164 165 1 5.77036 17.2454 
-0.546531 -0.539993 1.7417 -0.9456 -0.145306 -0.291078 201 203 203 0 12.925 11.9204 
-0.557987 -0.522982 1.63019 -0.942408 -0.0866915 -0.323036 213 214 215 1 15.2038 10.5807 
-1.68675 -0.646514 2.18596 -0.344882 -0.764986 -0.543924 93 93 93 0 29 8.6191 
-0.556919 -0.504917 1.63443 -0.908537 0.120139 -0.40016 216 216 217 1 15.0667 11.212 
-1.56893 -0.806596 2.27548 -0.924108 0.0938204 -0.370436 174 173 173 0 22.6904 14.6033 
-1.56412 -0.702102 2.11013 -0.909163 -0.00352103 -0.416425 189 188 189 1 21.4357 13.5405 
-1.55203 -1.08539 1.67145 -0.946172 -0.0681253 -0.316412 155 156 154 0 139 7.64867 
-0.52898 -0.833449 1.54658 -0.932801 0.102775 -0.345427 183 184 185 1 11.8175 10.3682 
-1.55494 -1.10387 1.71192 -0.955406 -0.102933 -0.276774 155 156 154 0 135 7.42896 
-1.55373 -1.09423 1.70772 -0.952964 -0.0907859 -0.289165 153 153 152 1 149 7.05717 
-1.57136 -1.18054 2.03354 -0.977762 -0.141474 -0.15481 144 146 149 0 150 11.3206 
-1.55412 -1.09479 1.716 -0.952966 -0.0788937 -0.29263 154 153 151 1 152 7.70912 
-1.5552 -1.10643 1.71532 -0.955583 -0.106031 -0.274989 155 156 154 0 131 7.90246 
-1.55424 -1.09501 1.71778 -0.958122 -0.0816465 -0.274476 154 153 151 1 151 7.80086 
-1.55962 -0.527153 1.91408 -0.935292 0.00187634 -0.353872 131 130 131 0 18 14.779 
-1.56193 -1.16112 2.01684 -0.936846 -0.0699884 -0.342667 144 146 149 1 93 7.29464 
-1.60664 -0.651627 2.1986 -0.132099 -0.769808 -0.624456 169 169 167 0 45 9.55023 
-1.58351 -1.04473 2.22794 -0.586024 0.0615214 -0.807955 168 164 163 1 3.3209 14.1825 
-1.68145 -0.661507 2.20394 -0.258548 -0.794408 -0.549607 87 87 87 0 17 7.92094 
-1.58426 -1.22147 3.00875 -0.170917 -0.649842 -0.740603 170 169 168 1 1.88973 28.314 
-1.57093 -1.15546 2.90878 -0.225898 -0.54835 -0.80516 168 168 168 0 1.77601 24.8124 
-1.57283 -0.980286 2.29861 -0.789438 0.209177 -0.57709 178 178 179 1 6.59358 14.979 
-1.60818 -0.679901 2.24208 -0.12183 -0.774243 -0.621052 156 147 147 0 44 10.1572 
-1.61049 -1.09119 2.81282 -0.0532244 -0.719917 -0.692016 167 167 168 1 3.30725 26.4485 
-1.62322 -1.04537 2.74364 -0.177892 -0.63932 -0.748081 127 127 124 0 5.04137 22.0909 
-1.60195 -1.03436 2.72085 -0.228436 -0.652992 -0.722093 138 148 147 1 6.60607 25.5313 
-1.62757 -1.00602 2.686 -0.138396 -0.695832 -0.704744 118 118 118 0 5.37187 24.742 
-1.60238 -0.997648 2.6679 -0.220082 -0.673504 -0.705661 163 162 162 1 6.98168 25.1944 
-1.5836 -0.991022 2.62488 -0.696843 -0.398514 -0.596319 168 167 166 0 4.84759 27.1513 
-1.63443 -0.967114 2.63017 -0.163258 -0.670577 -0.723652 151 155 157 1 6.14685 20.2724 
-0.546613 -0.518889 1.77574 -0.956003 -0.0918816 -0.278598 205 205 204 0 11.7614 11.5333 
-1.57553 -0.887909 2.44583 -0.872075 0.00852418 -0.489298 160 159 160 1 12.7597 16.6771 
-0.55505 -0.415757 1.75437 -0.959282 -0.0793311 -0.271081 202 202 203 0 12.0541 11.8849 
-1.5657 -0.661228 2.09332 -0.968934 0.000399783 -0.247319 182 182 184 1 16.2272 18.6335 
-1.55221 -1.09163 1.66899 -0.94526 -0.0920148 -0.313075 154 155 152 0 120 7.46095 
-1.56003 -0.857739 2.08471 -0.960566 0.141035 -0.239629 182 182 181 1 24.5523 15.0751 
-1.55459 -1.10493 1.70935 -0.950015 -0.0815931 -0.301353 155 156 154 0 139 8.66915 
-1.5519 -1.08548 1.67755 -0.947611 -0.0719358 -0.311222 155 156 154 1 144 6.74141 
-1.02645 -0.555478 1.79284 -0.701796 0.190704 -0.686378 192 192 194 0 12.1782 13.459 
-1.55306 -1.08988 1.67742 -0.951435 -0.0726283 -0.299161 155 156 154 1 136 6.59471 
-1.58259 -1.11658 2.45627 -0.875546 0.0410301 -0.48139 161 161 156 0 3.96815 20.838 
-1.56708 -1.05122 2.43859 -0.814307 0.15791 -0.558541 166 169 168 1 3.49352 15.792 
-1.57999 -0.978801 2.45964 -0.696837 0.137353 -0.703955 167 164 167 0 4.4424 17.6685 
-0.54692 -0.557378 1.68804 -0.942856 -0.223094 -0.247491 204 204 203 1 12.6389 12.1801 
-1.63758 -0.975996 2.64511 -0.182375 -0.638272 -0.747895 141 149 152 0 4.42605 21.1478 
-1.59972 -0.963491 2.61861 -0.394145 -0.567426 -0.722965 160 162 162 1 6.55605 20.6197 
-1.57968 -0.93478 2.52951 -0.831087 -0.0962727 -0.547746 163 163 163 0 9.15861 19.183 
-1.65364 -0.954193 2.61412 -0.0563684 -0.675864 -0.734868 104 103 104 1 2.07724 22.0242 
-0.559575 -0.425455 1.8527 -0.898319 -0.045337 -0.436998 187 189 191 0 7.10133 11.6701 
-1.5644 -0.607379 2.06507 -0.882576 0.0458371 -0.46793 191 192 191 1 31.7666 14.3644 
-1.55882 -0.531445 1.91055 -0.91127 0.00891456 -0.411713 130 130 128 0 27.7406 11.0695 
-1.55219 -1.09194 1.66873 -0.947927 -0.0865486 -0.306503 154 154 152 1 118 7.46095 
-1.55231 -1.08544 1.67662 -0.950171 -0.0665756 -0.304536 155 156 154 0 146 6.88729 
-0.537638 -0.779184 1.62584 -0.896502 -0.0623978 -0.438624 184 183 182 1 9.77631 10.7299 
-0.541521 -0.735724 1.65077 -0.893658 0.0591635 -0.444831 189 189 189 0 10.0851 10.5513 
-1.58106 -1.13481 2.4374 -0.837977 0.0121477 -0.54557 161 162 161 1 4.06714 21.2777 
-1.57761 -1.05329 2.72638 -0.405516 -0.546251 -0.732916 167 168 168 0 3.97275 21.1976 
-0.543007 -0.568368 1.73328 -0.930848 -0.060935 -0.360291 200 200 199 1 11.2593 12.1048 
-0.545273 -0.553482 1.75273 -0.932786 -0.040708 -0.358126 202 202 201 0 10.9749 11.5652 
-1.59436 -0.963649 2.61631 -0.481077 -0.516489 -0.708381 160 162 162 1 6.55859 24.4894 
-0.547355 -0.530868 1.74347 -0.951058 -0.198845 -0.236538 201 203 203 0 11.1023 12.2082 
-1.62836 -0.956415 2.61487 -0.0913348 -0.684324 -0.723436 118 145 156 1 5.03297 20.4681 
-0.56141 -0.502476 1.69186 -0.956986 -0.0990767 -0.272694 218 219 217 0 11.9966 11.7532 
-1.6495 -0.932271 2.58213 -0.109627 -0.702297 -0.703393 109 108 107 1 3.49064 23.2174 
-1.64331 -0.931544 2.57861 -0.129857 -0.710492 -0.691621 102 101 100 0 5.28672 23.7225 
-1.55358 -1.07104 1.71246 -0.955368 -0.0982548 -0.278602 153 154 153 1 142 10.6776 
-0.552419 -0.380143 1.68454 -0.924519 -0.00205694 -0.38113 213 213 212 0 11.8821 12.1156 
-0.560084 -0.373784 1.7833 -0.923652 -0.0713525 -0.37653 200 201 201 1 4.96267 14.0788 
-1.56345 -0.68822 2.02742 -0.964468 0.11403 -0.238323 188 188 190 0 17.7833 14.7652 
-0.527826 -0.819348 1.55396 -0.946828 -0.00912403 -0.321612 183 183 184 1 13.9712 10.6756 
-0.529088 -0.80784 1.53805 -0.963636 0.0596998 -0.260466 187 186 186 0 14.313 10.311 
-1.55195 -1.09038 1.67814 -0.943044 -0.0669036 -0.325871 155 156 154 1 130 5.88479 
-1.55357 -1.11206 1.68801 -0.94836 -0.117746 -0.294532 151 151 151 0 93 6.85758 
-1.63822 -0.684357 2.24176 -0.171775 -0.800115 -0.574725 94 95 96 1 22 10.4726 
-0.528758 -0.792645 1.56203 -0.952093 -0.0139621 -0.305491 185 187 187 0 13.7685 10.7565 
-1.62668 -0.631527 2.16875 -0.141736 -0.783227 -0.605365 172 173 173 1 44 9.13475 
-1.55341 -1.11166 1.68851 -0.948391 -0.113422 -0.296125 151 151 151 0 94 8.0222 
-1.55292 -1.10556 1.68757 -0.947656 -0.102718 -0.302319 154 154 152 1 105 6.55811 
-1.55379 -1.09082 1.7177 -0.954541 -0.0865634 -0.285234 154 153 151 0 156 6.92397 
-1.55307 -1.10779 1.68812 -0.948764 -0.111773 -0.295555 151 151 151 1 100 7.9881 
-1.55344 -1.11113 1.68932 -0.949732 -0.116044 -0.290762 151 151 151 0 95 7.97758 
-1.55408 -1.10305 1.70768 -0.957581 -0.125584 -0.259359 155 156 154 1 126 10.1225 
-1.55347 -1.11089 1.68954 -0.948977 -0.119874 -0.291674 151 151 151 0 95 8.61408 
-1.55346 -1.11066 1.68979 -0.950631 -0.114859 -0.288286 151 151 151 1 95 9.51103 
-1.55241 -1.08638 1.68005 -0.951484 -0.0814164 -0.296732 155 156 154 0 142 6.41706 
-1.55294 -1.10502 1.69278 -0.949917 -0.115468 -0.290386 154 155 152 1 111 8.11938 
-1.65512 -0.644183 2.18707 -0.0356152 -0.750524 -0.659882 96 96 96 0 44 9.86591 
-1.64098 -0.627915 2.16377 -0.0939381 -0.796691 -0.597042 169 170 171 1 44 9.66692 
-1.55325 -1.10756 1.69222 -0.94955 -0.119709 -0.289871 154 154 152 0 105 7.39552 
-0.539666 -0.684561 1.66737 -0.922416 -0.010876 -0.386044 193 193 193 1 11.7719 10.3978 
-1.55495 -1.07162 1.7253 -0.959024 -0.12426 -0.254624 153 153 153 0 141 11.2538 
-1.5527 -1.09622 1.69662 -0.950905 -0.0975199 -0.293716 155 156 154 1 126 8.34467 
-0.543321 -0.675884 1.69226 -0.835668 0.114377 -0.537193 190 188 192 0 10.763 10.3041 
-1.55346 -1.10917 1.69307 -0.94984 -0.123424 -0.287352 154 154 152 1 103 9.15441 
-1.56566 -1.05283 2.38409 -0.904728 0.194836 -0.378823 164 162 162 0 4.33343 20.4841 
-1.57184 -1.18322 2.06333 -0.981731 -0.0783397 -0.173397 144 146 149 1 149.755 12.2951 
-1.55308 -1.10298 1.69739 -0.949606 -0.111607 -0.292903 155 156 154 0 117 9.35841 
-1.57096 -1.18133 2.06196 -0.981969 -0.0878413 -0.167394 144 146 149 1 147.9 11.9398 
-1.55332 -1.10751 1.69569 -0.951869 -0.123172 -0.280667 154 155 152 0 109 9.20872 
-1.55334 -1.10698 1.69593 -0.951235 -0.125691 -0.281699 154 155 152 1 109 10.0351 
-1.56516 -0.961123 2.29022 -0.746612 0.32117 -0.582598 171 172 169 0 7.41768 14.0091 
-1.55263 -0.955458 2.28975 -0.710942 0.151873 -0.686655 171 170 167 1 3.70817 13.3997 
-1.55325 -1.10032 1.70086 -0.952127 -0.123593 -0.279605 155 156 154 0 121 9.175 
-1.56939 -0.998201 2.43523 -0.723027 0.120132 -0.680294 173 172 173 1 4.54134 14.6439 
-1.55837 -0.950959 2.29888 -0.736815 0.267767 -0.620809 167 168 169 0 3.65203 15.969 
-1.57137 -1.17367 2.08953 -0.973741 -0.121595 -0.192467 144 146 149 1 136.943 12.0571 
-1.57225 -1.19664 2.06144 -0.963424 -0.126359 -0.23632 144 146 149 0 136.966 8.8211 
-1.55347 -1.10478 1.69865 -0.951194 -0.125543 -0.281903 155 156 154 1 113 10.3527 
-0.542435 -0.568501 1.70913 -0.960414 -0.10293 -0.258862 203 204 203 0 10.9995 12.5038 
-1.5729 -1.20444 2.07319 -0.967205 -0.129584 -0.218455 144 146 149 1 131.833 9.75549 
-1.55362 -1.10846 1.69687 -0.951354 -0.125891 -0.281205 154 155 152 0 107 10.4006 
-1.55334 -1.09329 1.70656 -0.955533 -0.116612 -0.270847 153 153 152 1 130 9.63882 
-1.62039 -0.959847 2.61968 -0.0672705 -0.689717 -0.720948 162 161 160 0 4.9874 22.4351 
-1.55372 -1.10615 1.69975 -0.952221 -0.128252 -0.277177 155 156 154 1 111 10.5278 
-1.55374 -1.10405 1.70259 -0.952149 -0.129154 -0.277004 155 156 154 0 116 10.206 
-1.55372 -1.10397 1.70405 -0.952914 -0.128735 -0.27456 155 156 154 1 117 11.2538 
-1.55653 -0.792646 2.10519 -0.849026 0.000145573 -0.52835 204 203 203 0 12.8703 13.2274 
-1.55912 -0.786517 2.15077 -0.81204 0.0726084 -0.579067 189 192 194 1 17.7997 10.6423 
-1.55371 -1.09492 1.71057 -0.955835 -0.120527 -0.268053 153 153 152 0 129 8.94717 
-0.553937 -0.426508 1.72489 -0.954304 -0.0293538 -0.297393 217 215 215 1 10.7017 11.9612 
-1.56025 -0.780795 2.24912 -0.743428 -0.0410908 -0.667552 181 180 180 0 15.0922 11.6282 
-1.5537 -1.08652 1.71291 -0.955662 -0.11185 -0.272396 154 153 151 1 134 11.006 
-1.55386 -1.09571 1.71224 -0.956133 -0.124091 -0.265352 153 153 152 0 128 10.8112 
-1.55384 -1.08966 1.71491 -0.95726 -0.117032 -0.264493 154 153 151 1 132 11.2538 
-1.55441 -1.06909 1.72434 -0.960167 -0.105085 -0.258914 153 153 153 0 144 11.2538 
-1.5563 -1.08104 1.76068 -0.960616 -0.105241 -0.257178 151 152 151 1 165 11.2538 
-0.556515 -0.330464 1.71174 -0.881801 -0.0952026 -0.461913 214 216 216 0 9.00222 12.3459 
-1.55404 -1.08929 1.71731 -0.957166 -0.126608 -0.260392 154 153 151 1 131 11.2538 
-1.57249 -1.15104 2.05399 -0.976857 -0.115825 -0.179821 144 146 149 0 133 12.2951 
-1.57228 -1.13612 2.05766 -0.973073 -0.119728 -0.196964 144 146 149 1 131 11.368 
-1.55618 -0.526587 1.85099 -0.932595 0.103216 -0.345852 131 132 131 0 32.91 14.228 
-1.55468 -0.543405 1.8256 -0.943493 0.108997 -0.312955 132 132 133 1 23 15.8926 
-1.55357 -1.10263 1.69239 -0.942512 -0.105614 -0.317044 155 156 154 0 126 7.66304 
-1.55313 -1.10325 1.68471 -0.951856 -0.104665 -0.288124 154 154 152 1 115 9.22415 
-1.57397 -1.18762 2.07699 -0.971651 -0.159018 -0.174948 144 146 149 0 126 11.1482 
-0.530132 -0.841538 1.5637 -0.942156 0.138567 -0.305191 177 177 178 1 9.17516 10.7095 
-1.58399 -1.24846 2.12135 -0.957804 -0.225907 -0.1777 144 146 149 0 110 8.23943 
-1.56364 -0.740448 1.96726 -0.9721 0.107276 -0.208597 192 191 190 1 19 18.643 
-1.55301 -1.09525 1.68692 -0.953172 -0.0742626 -0.29317 155 156 154 0 134 8.06753 
-0.529777 -0.809564 1.53783 -0.978015 0.0557782 -0.200936 187 186 186 1 13.5009 10.311 
-1.5548 -1.07611 1.72397 -0.959452 -0.129986 -0.25011 153 154 153 0 141 11.2538 
-1.57699 -0.847692 2.38501 -0.946042 0.113709 -0.303438 157 158 161 1 7.85082 23.8679 
-1.55394 -1.10063 1.70557 -0.952259 -0.0883752 -0.292222 155 156 154 0 145 8.55801 
-1.55297 -1.09541 1.69265 -0.955751 -0.0872644 -0.280936 155 156 154 1 141 8.86545 
-1.56199 -0.799705 2.00191 -0.859463 -0.0229033 -0.510685 204 203 202 0 11.9874 12.5984 
-0.528005 -0.807455 1.55564 -0.945579 -0.0288065 -0.324114 186 185 185 1 13.1149 10.6756 
-0.529325 -0.800428 1.5233 -0.93246 -0.0128492 -0.361045 192 191 192 0 13.7867 10.3605 
-1.65892 -0.627085 2.16325 -0.123375 -0.760542 -0.637459 93 94 93 1 46 8.51998 
-1.55317 -1.094 1.69792 -0.952589 -0.0932396 -0.28962 155 156 154 0 145 7.94503 
-1.55289 -1.08944 1.69346 -0.954627 -0.0649174 -0.290644 153 153 152 1 147 7.88958 
-0.529267 -0.773232 1.56931 -0.961097 -0.0247659 -0.275099 186 186 186 0 12.8081 10.4385 
-0.52997 -0.778165 1.54551 -0.962202 -0.0485649 -0.267972 192 191 191 1 13.2917 10.6278 
-1.57277 -1.24291 2.05325 -0.976305 -0.119718 -0.180268 144 146 149 0 71 8.5156 
-1.55458 -1.08059 1.72739 -0.951246 -0.125232 -0.281866 153 154 153 1 145 9.84035 
-1.57335 -1.21703 2.08007 -0.981758 -0.133749 -0.135137 144 146 149 0 130 11.017 
-0.528331 -0.740314 1.54051 -0.945166 0.0208898 -0.325922 189 189 191 1 10.9287 10.7794 
-1.09005 -0.548758 1.8001 -0.789768 0.135932 -0.598155 150 150 150 0 9.68024 11.0753 
-1.55362 -1.1137 1.69033 -0.949626 -0.120443 -0.289316 151 151 151 1 94 7.59546 
-1.56817 -1.19082 1.98188 -0.980649 -0.11389 -0.15924 144 146 149 0 105 11.2538 
-1.55355 -1.08799 1.72244 -0.961435 -0.0723482 -0.265347 153 154 153 1 156 8.92393 
-1.55265 -1.08347 1.70176 -0.953895 -0.106711 -0.280529 154 153 151 0 149 7.29833 
-1.29393 -0.598664 1.75021 -0.825727 0.0643378 -0.560389 150 150 151 1 17.4411 9.31575 
-1.55525 -1.12065 1.69004 -0.952856 -0.1221 -0.277773 153 154 155 0 76 9.17445 
-1.55367 -1.11308 1.6909 -0.949825 -0.1245 -0.286935 151 151 151 1 94 7.81797 
-0.534244 -0.668464 1.57864 -0.931549 -0.0452675 -0.360788 204 204 202 0 12.526 10.4858 
-1.55298 -1.08568 1.70592 -0.953877 -0.109004 -0.279707 154 153 151 1 145 8.22027 
-1.56728 -1.11849 2.40887 -0.881864 0.0130672 -0.471323 169 167 169 0 3.17534 20.8574 
-1.54379 -1.03068 2.15117 -0.711328 0.487804 -0.506024 164 164 161 1 3.76783 12.4612 
-1.55372 -1.11267 1.69112 -0.950532 -0.122022 -0.285657 151 151 151 0 94 10.3961 
-0.536179 -0.641711 1.60454 -0.90931 -0.0813747 -0.408086 202 202 203 1 12.0408 10.9438 
-0.536056 -0.634732 1.58559 -0.951169 -0.102247 -0.291243 206 206 204 0 11.6194 10.9594 
-1.55315 -1.08415 1.72435 -0.948956 -0.102922 -0.298145 153 154 153 1 149 9.55765 
-0.538346 -0.619733 1.59397 -0.92726 -0.122537 -0.353799 206 206 205 0 12.2187 10.9965 
-0.541633 -0.602381 1.59591 -0.955431 -0.199764 -0.217361 207 208 208 1 12.1934 10.9594 
-1.55316 -1.09419 1.69298 -0.957298 -0.107645 -0.268316 155 156 154 0 132 9.21555 
-0.545689 -0.585607 1.59818 -0.954844 -0.237928 -0.177941 209 209 209 1 12.1708 11.6361 
-1.57221 -1.22763 2.06539 -0.97152 -0.140301 -0.190957 144 146 149 0 112 8.81535 
-1.55885 -0.9898 2.25861 -0.782757 0.303607 -0.543245 169 167 168 1 7.66874 14.5154 
-1.56472 -1.00755 2.38504 -0.768915 0.178385 -0.613961 171 170 170 0 4.3282 15.5359 
-0.552269 -0.552623 1.60521 -0.966759 -0.169414 -0.191511 211 212 213 1 12.0676 10.7436 
-0.554069 -0.53432 1.60459 -0.93016 -0.0821909 -0.357836 213 211 212 0 11.3375 10.9923 
-1.6177 -1.06564 2.77525 -0.168263 -0.68054 -0.713129 127 127 124 1 2.44793 23.6743 
